ply
format ascii 1.0
element vertex 1176
property float x
property float y
property float z
property uchar red
property uchar green
property uchar blue
end_header
2.147357 1.559304 -5.667866 93 110 111
2.151461 1.558007 -5.663152 94 110 111
2.155283 1.556513 -5.657722 94 111 112
2.158852 1.554845 -5.651659 94 111 111
2.162313 1.553108 -5.645347 94 111 111
2.166772 1.552096 -5.641669 94 111 111
2.171481 1.551269 -5.638660 94 112 112
2.176271 1.550503 -5.635877 95 113 113
2.270942 1.531332 -5.566192 132 148 145
2.275185 1.530291 -5.562410 135 151 147
2.279405 1.529241 -5.558592 139 154 150
2.283801 1.528314 -5.555223 142 157 153
2.288281 1.527448 -5.552073 144 159 151
2.292579 1.526464 -5.548498 146 160 153
2.341317 1.513205 -5.500304 148 157 140
2.345031 1.511911 -5.495599 147 156 139
2.349824 1.511317 -5.493442 148 157 139
2.354114 1.510404 -5.490122 147 156 138
2.357654 1.509014 -5.485072 140 149 130
2.359471 1.506532 -5.476048 128 137 118
2.364742 1.506262 -5.475065 123 132 112
2.369380 1.505590 -5.472623 128 137 117
2.373001 1.504277 -5.467852 145 154 133
2.375636 1.502347 -5.460836 155 164 143
2.378300 1.500444 -5.453920 156 165 144
2.382278 1.499377 -5.450043 156 165 144
2.388405 1.499665 -5.451087 156 165 144
2.392008 1.498371 -5.446383 157 166 145
2.395543 1.497039 -5.441544 157 166 145
2.399286 1.495844 -5.437200 157 166 145
2.403795 1.495131 -5.434609 157 166 145
2.409282 1.495028 -5.434235 158 167 146
2.412877 1.493755 -5.429605 148 157 136
2.413442 1.490616 -5.418196 127 136 117
2.418659 1.490358 -5.417258 126 135 116
2.423125 1.489640 -5.414647 132 141 122
2.427972 1.489158 -5.412897 140 149 130
2.431334 1.487771 -5.407853 148 157 140
2.435023 1.486589 -5.403557 151 160 143
2.439712 1.486021 -5.401495 150 160 143
2.445053 1.485853 -5.400882 150 161 144
2.449897 1.485384 -5.399177 149 160 143
2.454217 1.484600 -5.396328 148 159 143
2.458726 1.483934 -5.393906 148 159 143
2.463133 1.483209 -5.391272 147 158 142
2.468026 1.482780 -5.389714 146 157 141
2.473625 1.482776 -5.389697 148 159 143
2.475044 1.480272 -5.380596 132 143 127
2.477269 1.478260 -5.373281 119 131 116
2.481985 1.477740 -5.371393 117 129 115
2.486402 1.477045 -5.368867 122 134 120
-2.504658 1.518075 -5.538946 150 186 186
-2.500398 1.518986 -5.542272 151 187 187
-2.496004 1.519821 -5.545319 151 187 187
-2.491678 1.520701 -5.548530 152 188 188
-2.487281 1.521542 -5.551595 153 189 189
-2.482896 1.522393 -5.554703 153 189 189
-2.478543 1.523269 -5.557899 153 189 189
-2.474068 1.524074 -5.560834 154 190 190
-2.469711 1.524955 -5.564049 155 191 191
-2.465248 1.525775 -5.567040 156 192 192
-2.460833 1.526628 -5.570152 156 192 192
-2.456367 1.527453 -5.573164 157 193 193
-2.451900 1.528282 -5.576187 158 194 194
-2.447425 1.529110 -5.579208 159 195 195
-2.442968 1.529953 -5.582285 159 195 195
-2.438493 1.530788 -5.585333 159 195 195
-2.434036 1.531639 -5.588439 160 196 196
-2.429545 1.532473 -5.591479 160 196 196
-2.425149 1.533371 -5.594755 160 196 196
-2.420608 1.534181 -5.597711 162 198 198
-2.416146 1.535045 -5.600866 162 198 198
-2.411633 1.535881 -5.603916 163 199 199
-2.407190 1.536766 -5.607143 164 200 200
-2.402671 1.537606 -5.610209 165 201 201
-2.398192 1.538476 -5.613385 165 201 201
-2.393725 1.539358 -5.616601 165 201 202
-2.389220 1.540220 -5.619746 166 201 203
-2.384765 1.541118 -5.623024 166 203 204
-2.380237 1.541974 -5.626147 166 204 205
-2.375823 1.542908 -5.629553 167 205 206
-2.371343 1.543803 -5.632819 168 206 207
-2.366920 1.544741 -5.636240 168 206 207
-2.362500 1.545684 -5.639682 168 206 207
-2.358063 1.546622 -5.643104 168 206 207
-2.353683 1.547600 -5.646675 169 207 208
-2.349209 1.548523 -5.650040 170 208 209
-2.344836 1.549517 -5.653668 171 209 210
-2.340383 1.550462 -5.657117 172 210 211
-2.335978 1.551445 -5.660702 173 211 213
-2.331594 1.552446 -5.664355 173 211 213
-2.327148 1.553411 -5.667875 174 212 215
-2.322741 1.554407 -5.671509 175 214 216
-2.318290 1.555379 -5.675055 176 215 217
-2.313788 1.556320 -5.678491 177 216 218
-2.309342 1.557305 -5.682084 178 217 220
-2.304849 1.558263 -5.685580 179 219 222
-2.300352 1.559223 -5.689084 181 220 224
-2.295873 1.560201 -5.692650 182 221 226
-2.291358 1.561159 -5.696146 183 222 227
-2.286895 1.562157 -5.699788 184 223 228
-2.282467 1.563185 -5.703537 185 224 229
-2.277920 1.564137 -5.707010 185 224 230
-2.273580 1.565235 -5.711019 186 225 231
-2.268817 1.566048 -5.713983 188 229 235
-2.264422 1.567119 -5.717893 189 230 236
-2.259871 1.568088 -5.721428 191 232 238
-2.255290 1.569041 -5.724903 192 233 239
-2.250694 1.569989 -5.728363 193 234 240
-2.246134 1.570966 -5.731929 194 235 241
-2.241427 1.571846 -5.735140 195 236 242
-2.236781 1.572774 -5.738526 196 237 243
-2.232086 1.573672 -5.741803 197 239 245
-2.227371 1.574561 -5.745044 197 240 246
-2.222636 1.575441 -5.748254 199 242 248
-2.217905 1.576327 -5.751490 200 243 249
-2.213152 1.577203 -5.754685 201 244 250
-2.208364 1.578059 -5.757807 202 246 249
-2.203626 1.578955 -5.761079 203 247 250
-2.198879 1.579850 -5.764344 204 248 251
-2.193875 1.580564 -5.766949 206 250 253
-2.189080 1.581434 -5.770121 207 251 254
-2.184305 1.582322 -5.773362 208 252 255
-2.179661 1.583311 -5.776970 208 252 254
-2.174752 1.584112 -5.779893 209 253 254
-2.170008 1.585038 -5.783272 211 253 254
-2.165036 1.585802 -5.786060 212 254 255
-2.160293 1.586738 -5.789476 213 254 255
-2.155458 1.587613 -5.792667 213 254 255
-2.150779 1.588607 -5.796295 214 254 255
-2.145957 1.589501 -5.799557 214 254 255
-2.141166 1.590423 -5.802919 215 254 255
-2.136093 1.591140 -5.805536 217 255 255
-2.131281 1.592056 -5.808880 218 255 255
-2.126399 1.592925 -5.812050 219 255 255
-2.121383 1.593699 -5.814872 220 255 255
-2.116427 1.594521 -5.817873 221 255 255
-2.111438 1.595323 -5.820800 222 255 255
-2.106395 1.596090 -5.823597 225 255 255
-2.101414 1.596908 -5.826582 225 255 255
-2.096315 1.597641 -5.829255 228 255 255
-2.091342 1.598474 -5.832295 228 255 255
-2.086365 1.599308 -5.835340 229 255 255
-2.081386 1.600147 -5.838398 229 255 255
-2.076319 1.600923 -5.841230 230 255 255
-2.071338 1.601769 -5.844316 231 255 255
-2.066354 1.602618 -5.847416 231 255 255
-2.061352 1.603458 -5.850480 231 255 255
-2.056341 1.604296 -5.853538 232 255 255
-2.051341 1.605148 -5.856646 233 255 255
-2.046281 1.605958 -5.859601 233 255 255
-2.041314 1.606845 -5.862838 233 255 255
-2.036286 1.607689 -5.865920 234 255 255
-2.031353 1.608615 -5.869296 234 255 255
-2.026387 1.609520 -5.872598 234 255 255
-2.021463 1.610463 -5.876040 235 255 255
-2.016526 1.611401 -5.879464 235 255 255
-2.011578 1.612338 -5.882879 234 255 255
-2.006621 1.613271 -5.886286 235 255 255
-2.001669 1.614216 -5.889732 236 255 255
-1.996692 1.615145 -5.893122 236 255 255
-1.991713 1.616078 -5.896527 236 255 255
-1.986713 1.617001 -5.899893 236 255 255
-1.981701 1.617918 -5.903242 236 255 255
-1.976653 1.618813 -5.906507 236 255 255
-1.971571 1.619685 -5.909687 235 255 255
-1.966497 1.620569 -5.912913 235 255 255
-1.961325 1.621378 -5.915864 235 255 255
-1.956272 1.622291 -5.919195 235 255 255
-1.951144 1.623146 -5.922316 235 255 255
-1.945959 1.623960 -5.925284 235 255 255
-1.940862 1.624852 -5.928539 235 255 255
-1.935691 1.625688 -5.931591 235 255 255
-1.930532 1.626540 -5.934697 234 255 255
-1.925368 1.627392 -5.937808 234 255 255
-1.920342 1.628367 -5.941365 233 255 255
-1.915244 1.629287 -5.944723 232 255 255
-1.910139 1.630208 -5.948081 232 255 255
-1.905120 1.631207 -5.951728 232 255 255
-1.900093 1.632207 -5.955376 232 255 255
-1.895067 1.633214 -5.959049 232 255 255
-1.890036 1.634223 -5.962731 231 255 255
-1.885016 1.635249 -5.966474 230 255 255
-1.879913 1.636208 -5.969974 230 255 255
-1.874820 1.637183 -5.973532 229 255 255
-1.869685 1.638127 -5.976978 229 255 255
-1.864578 1.639104 -5.980539 229 255 255
-1.859373 1.639999 -5.983807 228 255 255
-1.854195 1.640925 -5.987185 227 255 255
-1.849000 1.641842 -5.990530 226 255 255
-1.843770 1.642733 -5.993783 225 255 255
-1.838543 1.643634 -5.997069 224 255 255
-1.833203 1.644439 -6.000005 224 255 255
-1.827944 1.645322 -6.003230 223 255 255
-1.822648 1.646179 -6.006354 223 255 255
-1.817305 1.646999 -6.009346 222 255 255
-1.811944 1.647807 -6.012295 220 255 255
-1.806563 1.648604 -6.015202 220 255 255
-1.801235 1.649454 -6.018303 219 255 255
-1.795946 1.650346 -6.021559 217 254 255
-1.790569 1.651163 -6.024539 216 255 255
-1.785242 1.652032 -6.027710 216 255 255
-1.779902 1.652896 -6.030862 215 255 255
-1.774623 1.653822 -6.034240 214 255 255
-1.769387 1.654794 -6.037789 213 255 255
-1.764081 1.655709 -6.041125 212 254 255
-1.758831 1.656682 -6.044679 211 254 255
-1.753589 1.657670 -6.048284 210 254 255
-1.748326 1.658646 -6.051842 209 253 255
-1.684772 1.670526 -6.095189 198 242 252
-1.679396 1.671485 -6.098688 198 242 252
-1.674072 1.672503 -6.102404 197 241 251
-1.668603 1.673383 -6.105615 196 240 250
-1.663127 1.674265 -6.108830 195 239 249
-1.657571 1.675071 -6.111771 193 237 248
-1.573271 1.686924 -6.155018 178 221 236
-1.567754 1.687877 -6.158496 177 220 235
-1.561967 1.688545 -6.160936 176 219 234
-1.556303 1.689353 -6.163883 175 218 233
-1.550390 1.689896 -6.165865 173 216 232
-1.544586 1.690562 -6.168295 172 215 231
-1.474442 1.698448 -6.197066 162 205 222
-1.468531 1.699067 -6.199324 161 204 221
-1.462385 1.699417 -6.200604 159 202 219
-1.456704 1.700315 -6.203878 159 202 219
-1.450698 1.700838 -6.205787 158 201 218
-1.444829 1.701528 -6.208306 157 200 217
-1.379002 1.716041 -6.261257 146 189 206
-1.373172 1.716893 -6.264367 145 188 204
-1.367439 1.717876 -6.267955 143 186 203
-1.361575 1.718704 -6.270973 142 185 202
-1.355878 1.719751 -6.274793 141 184 201
-1.349888 1.720435 -6.277290 139 182 199
-1.343734 1.720916 -6.279044 136 179 196
-1.337734 1.721599 -6.281537 134 177 194
-1.331660 1.722193 -6.283705 133 176 193
-1.325919 1.723226 -6.287474 133 176 192
-1.320095 1.724160 -6.290882 134 177 194
-1.314299 1.725142 -6.294463 134 177 193
-1.308936 1.726704 -6.300164 136 179 195
-1.302902 1.727391 -6.302672 135 178 194
-1.296956 1.728203 -6.305634 135 178 193
-1.291085 1.729124 -6.308995 135 178 193
-1.285276 1.730138 -6.312693 135 179 194
-1.279314 1.730955 -6.315675 137 181 194
-1.273340 1.731764 -6.318626 140 184 197
-1.266881 1.731919 -6.319193 142 185 199
-1.258787 1.729828 -6.311563 148 191 204
-1.252200 1.729797 -6.311451 148 192 205
-1.243635 1.727020 -6.301316 151 195 208
-1.236706 1.726496 -6.299407 151 195 208
-1.229543 1.725640 -6.296280 152 196 209
-1.223177 1.725898 -6.297224 151 195 208
-1.216611 1.725875 -6.297139 151 195 208
-1.209685 1.725338 -6.295179 152 196 208
-1.203132 1.725331 -6.295154 152 196 208
-1.195874 1.724307 -6.291418 153 196 208
-1.188921 1.723714 -6.289253 154 197 209
-1.182514 1.723910 -6.289969 154 197 209
-1.176208 1.724256 -6.291232 154 196 208
-1.169762 1.724399 -6.291754 154 196 208
-1.163182 1.724347 -6.291565 154 196 208
-1.156863 1.724683 -6.292788 153 195 206
-1.150535 1.725007 -6.293972 152 194 205
-1.144204 1.725333 -6.295160 153 194 204
-1.137633 1.725297 -6.295030 153 193 203
-1.130781 1.724833 -6.293337 154 194 204
-1.124490 1.725224 -6.294762 153 193 203
-1.118070 1.725420 -6.295480 153 193 202
-1.111612 1.725561 -6.295992 153 193 202
-1.105936 1.726922 -6.300960 152 191 200
-1.099287 1.726773 -6.300415 152 190 199
-1.092722 1.726755 -6.300349 152 190 199
-1.086812 1.727777 -6.304080 151 189 198
-1.081039 1.729031 -6.308655 150 188 197
-1.074723 1.729427 -6.310099 150 188 197
-1.068430 1.729863 -6.311690 150 188 197
-1.062479 1.730864 -6.315341 149 187 196
-1.055845 1.730758 -6.314954 149 187 196
-1.049225 1.730671 -6.314639 150 187 196
-1.042315 1.730104 -6.312568 150 187 196
-1.035531 1.729740 -6.311241 150 187 195
0.799452 1.629820 -5.946665 131 163 174
0.804625 1.627773 -5.939196 134 166 177
0.809824 1.625808 -5.932029 138 170 181
0.815145 1.624115 -5.925851 139 171 182
0.820439 1.622397 -5.919581 139 171 184
0.825600 1.620441 -5.912446 140 173 185
0.830811 1.618613 -5.905777 141 175 187
0.835938 1.616647 -5.898603 142 176 188
0.841020 1.614625 -5.891227 143 177 189
0.846105 1.612639 -5.883979 144 178 190
0.851102 1.610514 -5.876224 145 179 191
0.856177 1.608566 -5.869117 145 179 192
0.861353 1.606833 -5.862794 142 178 192
0.866321 1.604740 -5.855156 144 180 194
2.008809 1.551125 -5.659536 138 157 155
2.014852 1.551245 -5.659974 136 155 153
2.021414 1.551764 -5.661865 134 153 151
2.027871 1.552199 -5.663452 132 151 150
2.034107 1.552462 -5.664413 131 150 149
2.039775 1.552292 -5.663793 130 150 148
2.046716 1.553089 -5.666700 129 147 147
2.053321 1.553626 -5.668662 127 145 145
2.061187 1.555113 -5.674086 123 142 142
2.069079 1.556610 -5.679549 118 138 138
2.078666 1.559370 -5.689620 113 133 133
2.086554 1.560844 -5.694997 110 130 129
2.095337 1.562977 -5.702781 105 125 125
2.103142 1.564370 -5.707863 100 119 119
2.108668 1.564066 -5.706752 97 115 116
2.113793 1.563466 -5.704565 96 114 115
2.118648 1.562671 -5.701662 95 114 114
2.123231 1.561680 -5.698047 96 115 115
2.127932 1.560781 -5.694765 95 113 114
2.132751 1.559973 -5.691820 95 113 114
2.272677 1.526708 -5.570444 139 156 150
2.277745 1.526221 -5.568670 143 159 153
2.281924 1.525143 -5.564735 148 163 156
2.285698 1.523800 -5.559836 149 164 157
2.290137 1.522907 -5.556575 152 166 157
2.294097 1.521700 -5.552173 153 166 157
2.300162 1.521892 -5.552872 157 170 160
2.303948 1.520579 -5.548082 152 164 154
2.304230 1.516965 -5.534896 131 143 132
2.307991 1.515654 -5.530114 125 137 125
2.312533 1.514862 -5.527223 132 144 130
2.317313 1.514229 -5.524914 141 152 138
2.322597 1.513927 -5.523813 147 157 142
2.325278 1.511934 -5.516541 150 159 143
2.330107 1.511345 -5.514392 151 160 143
2.334564 1.510518 -5.511373 152 161 143
2.338051 1.509068 -5.506084 151 160 142
2.341997 1.507922 -5.501901 152 161 143
2.345781 1.506676 -5.497357 150 159 141
2.350531 1.506056 -5.495094 151 160 140
2.355121 1.505337 -5.492470 151 160 140
2.358285 1.503712 -5.486540 142 151 131
2.360206 1.501304 -5.477753 132 141 121
2.365537 1.501071 -5.476906 126 135 115
2.370164 1.500394 -5.474436 130 139 118
2.373663 1.499008 -5.469377 150 159 137
2.375751 1.496739 -5.461100 161 171 148
2.378820 1.495098 -5.455112 162 172 149
2.382535 1.493870 -5.450630 162 172 149
2.388804 1.494245 -5.452000 162 172 149
2.392838 1.493224 -5.448273 162 172 148
2.396087 1.491719 -5.442780 161 171 148
2.399837 1.490532 -5.438450 161 170 149
2.404501 1.489916 -5.436204 162 171 150
2.409819 1.489708 -5.435445 162 171 150
2.413683 1.488605 -5.431419 152 161 140
2.413709 1.485145 -5.418796 130 139 119
2.419178 1.485042 -5.418422 127 136 115
2.423848 1.484451 -5.416263 132 141 120
2.428572 1.483895 -5.414236 141 150 130
2.432172 1.482656 -5.409716 152 161 142
2.435700 1.481380 -5.405060 157 166 147
2.440261 1.480736 -5.402710 156 165 147
2.445470 1.480488 -5.401804 156 165 148
2.450768 1.480294 -5.401096 155 165 148
2.455115 1.479528 -5.398302 153 164 147
2.459616 1.478859 -5.395860 153 164 147
2.463898 1.478060 -5.392947 151 162 145
2.468988 1.477750 -5.391813 151 162 145
2.474335 1.477594 -5.391244 151 162 146
2.476166 1.475343 -5.383033 136 147 131
2.477676 1.472913 -5.374165 119 132 116
2.482345 1.472367 -5.372172 119 131 115
2.486803 1.471698 -5.369732 123 135 121
-2.504206 1.512041 -5.537947 152 189 188
-2.499871 1.512903 -5.541104 152 189 189
-2.495566 1.513788 -5.544345 153 190 190
-2.491153 1.514611 -5.547359 154 190 191
-2.486797 1.515473 -5.550516 153 190 190
-2.482393 1.516309 -5.553580 154 190 190
-2.478008 1.517161 -5.556698 155 191 191
-2.473612 1.518010 -5.559808 155 191 191
-2.469196 1.518850 -5.562888 155 192 192
-2.464810 1.519714 -5.566050 156 193 193
-2.460373 1.520550 -5.569112 157 193 193
-2.455921 1.521380 -5.572153 158 194 194
-2.451475 1.522218 -5.575223 159 195 195
-2.447001 1.523043 -5.578243 160 196 196
-2.442574 1.523901 -5.581385 161 197 197
-2.438129 1.524751 -5.584499 161 197 197
-2.433663 1.525593 -5.587583 161 197 197
-2.429243 1.526468 -5.590786 163 199 199
-2.424786 1.527323 -5.593918 162 198 198
-2.420323 1.528179 -5.597054 163 199 199
-2.415847 1.529030 -5.600172 164 200 200
-2.411320 1.529854 -5.603188 165 201 201
-2.406847 1.530715 -5.606343 165 201 201
-2.402377 1.531583 -5.609521 166 202 202
-2.397880 1.532438 -5.612654 167 203 203
-2.393349 1.533275 -5.615720 167 202 203
-2.388856 1.534141 -5.618890 167 202 204
-2.384356 1.535007 -5.622061 167 203 205
-2.379898 1.535903 -5.625344 168 206 207
-2.375464 1.536820 -5.628704 169 207 208
-2.371028 1.537740 -5.632073 170 208 209
-2.366603 1.538672 -5.635485 169 207 208
-2.362129 1.539576 -5.638798 170 208 209
-2.357730 1.540534 -5.642304 170 208 209
-2.353250 1.541444 -5.645636 171 209 210
-2.348805 1.542381 -5.649070 172 210 211
-2.344333 1.543305 -5.652455 173 211 213
-2.339947 1.544290 -5.656063 174 212 214
-2.335531 1.545261 -5.659617 176 214 216
-2.331122 1.546241 -5.663209 176 214 217
-2.326736 1.547242 -5.666873 176 215 218
-2.322273 1.548196 -5.670366 177 217 219
-2.317819 1.549161 -5.673902 179 218 221
-2.313279 1.550074 -5.677244 179 219 222
-2.308825 1.551048 -5.680813 180 220 224
-2.304332 1.552001 -5.684304 182 221 226
-2.299808 1.552939 -5.687739 183 222 227
-2.295338 1.553918 -5.691324 183 222 227
-2.290786 1.554846 -5.694723 185 224 229
-2.286219 1.555769 -5.698104 186 225 232
-2.281761 1.556771 -5.701773 187 226 233
-2.277256 1.557746 -5.705345 188 227 234
-2.272723 1.558707 -5.708866 189 228 235
-2.268072 1.559592 -5.712107 190 231 237
-2.263615 1.560615 -5.715854 191 232 238
-2.259018 1.561547 -5.719267 193 234 240
-2.254353 1.562437 -5.722527 195 236 242
-2.249775 1.563392 -5.726024 195 236 242
-2.245110 1.564291 -5.729317 197 238 244
-2.240343 1.565124 -5.732368 198 239 245
-2.235748 1.566082 -5.735875 199 240 246
-2.231043 1.566967 -5.739119 200 242 247
-2.226362 1.567874 -5.742441 200 243 249
-2.221702 1.568802 -5.745838 201 245 250
-2.216954 1.569672 -5.749023 202 246 250
-2.212161 1.570514 -5.752110 204 248 251
-2.207326 1.571331 -5.755101 206 250 253
-2.202459 1.572130 -5.758027 208 252 254
-2.197755 1.573050 -5.761397 208 252 253
-2.192923 1.573883 -5.764446 209 253 254
-2.188144 1.574758 -5.767654 211 253 255
-2.183318 1.575605 -5.770755 212 254 255
-2.178744 1.576638 -5.774539 212 253 255
-2.173919 1.577496 -5.777680 212 254 255
-2.169159 1.578405 -5.781010 215 255 255
-2.164350 1.579283 -5.784226 215 255 255
-2.159616 1.580221 -5.787663 216 255 255
-2.154696 1.581028 -5.790618 217 255 255
-2.149928 1.581952 -5.794001 218 255 255
-2.145100 1.582836 -5.797239 219 255 255
-2.140233 1.583697 -5.800391 221 255 255
-2.135370 1.584565 -5.803569 223 255 255
-2.130486 1.585423 -5.806713 224 255 255
-2.125605 1.586287 -5.809879 225 255 255
-2.120639 1.587093 -5.812830 226 255 255
-2.115619 1.587863 -5.815651 228 255 255
-2.110610 1.588647 -5.818520 228 255 255
-2.105582 1.589419 -5.821351 231 255 255
-2.100612 1.590240 -5.824358 231 255 255
-2.095597 1.591033 -5.827259 233 255 255
-2.090566 1.591817 -5.830131 234 255 255
-2.085589 1.592647 -5.833171 235 255 255
-2.080616 1.593485 -5.836241 235 255 255
-2.075571 1.594272 -5.839125 237 255 255
-2.070590 1.595114 -5.842208 238 255 255
-2.065613 1.595963 -5.845317 238 255 255
-2.060615 1.596802 -5.848390 238 255 255
-2.055598 1.597630 -5.851422 238 255 255
-2.050603 1.598481 -5.854538 238 255 255
-2.045554 1.599295 -5.857519 239 255 255
-2.040522 1.600126 -5.860563 240 255 255
-2.035550 1.601010 -5.863801 241 255 255
-2.030620 1.601932 -5.867178 241 255 255
-2.025658 1.602834 -5.870484 241 255 255
-2.020739 1.603777 -5.873935 242 255 255
-2.015810 1.604716 -5.877377 242 255 255
-2.010869 1.605652 -5.880804 242 255 255
-2.005910 1.606580 -5.884202 242 255 255
-2.000958 1.607518 -5.887638 242 255 255
-1.995979 1.608441 -5.891018 242 255 255
-1.990997 1.609367 -5.894408 243 255 255
-1.985995 1.610282 -5.897762 243 255 255
-1.980984 1.611195 -5.901106 243 255 255
-1.975940 1.612088 -5.904375 243 255 255
-1.970901 1.612990 -5.907679 243 255 255
-1.965833 1.613874 -5.910916 243 255 255
-1.960727 1.614732 -5.914060 243 255 255
-1.955679 1.615644 -5.917400 242 255 255
-1.950511 1.616462 -5.920395 242 255 255
-1.945389 1.617322 -5.923547 242 255 255
-1.940274 1.618195 -5.926743 242 255 255
-1.935145 1.619061 -5.929917 242 255 255
-1.930009 1.619928 -5.933089 242 255 255
-1.924870 1.620796 -5.936271 242 255 255
-1.919852 1.621774 -5.939851 242 255 255
-1.914779 1.622710 -5.943279 242 255 255
-1.909703 1.623651 -5.946725 241 255 255
-1.904654 1.624620 -5.950274 240 255 255
-1.899646 1.625630 -5.953975 240 255 255
-1.894667 1.626672 -5.957791 239 255 255
-1.889660 1.627697 -5.961544 239 255 255
-1.884635 1.628713 -5.965267 239 255 255
-1.879584 1.629713 -5.968930 238 255 255
-1.874490 1.630683 -5.972480 237 255 255
-1.869396 1.631659 -5.976055 237 255 255
-1.864222 1.632571 -5.979397 237 255 255
-1.859087 1.633524 -5.982887 236 255 255
-1.853891 1.634430 -5.986203 235 255 255
-1.848653 1.635304 -5.989406 234 255 255
-1.843466 1.636229 -5.992795 232 255 255
-1.838232 1.637119 -5.996054 233 255 255
-1.832983 1.638002 -5.999287 232 255 255
-1.827697 1.638857 -6.002419 232 255 255
-1.822413 1.639720 -6.005579 230 255 255
-1.817086 1.640550 -6.008622 230 255 255
-1.811786 1.641410 -6.011770 228 255 255
-1.806434 1.642230 -6.014772 228 255 255
-1.801100 1.643071 -6.017853 226 255 255
-1.795762 1.643914 -6.020940 225 255 255
-1.790396 1.644737 -6.023957 224 255 255
-1.785095 1.645627 -6.027214 223 255 255
-1.779773 1.646503 -6.030424 222 255 255
-1.774488 1.647420 -6.033781 221 255 255
-1.769214 1.648354 -6.037201 219 254 255
-1.763956 1.649308 -6.040696 218 255 255
-1.758716 1.650287 -6.044283 216 255 255
-1.753503 1.651298 -6.047986 215 255 255
-1.748203 1.652234 -6.051414 214 255 255
-1.685042 1.664453 -6.096165 203 247 254
-1.679657 1.665400 -6.099636 202 247 254
-1.674335 1.666418 -6.103363 201 246 253
-1.668938 1.667368 -6.106841 201 245 253
-1.663514 1.668298 -6.110249 200 244 252
-1.658023 1.669168 -6.113436 199 243 253
-1.574145 1.681456 -6.158440 182 226 239
-1.568427 1.682193 -6.161140 181 225 238
-1.562815 1.683050 -6.164280 180 224 237
-1.557120 1.683826 -6.167120 179 223 237
-1.551401 1.684581 -6.169885 178 221 237
-1.545677 1.685337 -6.172656 176 220 235
-1.476744 1.694644 -6.206742 165 208 225
-1.470812 1.695248 -6.208955 164 207 224
-1.464882 1.695858 -6.211191 163 206 223
-1.459096 1.696644 -6.214067 163 206 223
-1.453166 1.697267 -6.216349 162 205 222
-1.447268 1.697932 -6.218785 162 205 222
-1.379014 1.709542 -6.261307 150 193 209
-1.373654 1.710977 -6.266564 150 192 208
-1.368181 1.712286 -6.271358 148 191 207
-1.362914 1.713865 -6.277142 147 190 206
-1.357574 1.715368 -6.282645 147 188 204
-1.351986 1.716570 -6.287048 147 186 202
-1.346291 1.717646 -6.290990 145 185 200
-1.340566 1.718696 -6.294836 142 182 198
-1.334534 1.719360 -6.297267 140 180 196
-1.328752 1.720354 -6.300908 140 178 195
-1.322597 1.720873 -6.302806 138 177 193
-1.316567 1.721560 -6.305326 138 176 192
-1.310584 1.722315 -6.308091 137 175 191
-1.304678 1.723182 -6.311265 136 175 189
-1.298441 1.723616 -6.312853 134 173 187
-1.292664 1.724669 -6.316710 133 173 187
-1.286196 1.724806 -6.317212 131 170 184
-1.280257 1.725657 -6.320330 130 170 183
-1.274457 1.726706 -6.324172 130 170 183
-1.268380 1.727388 -6.326670 131 170 183
-1.263315 1.729463 -6.334269 134 173 187
-1.257679 1.730774 -6.339070 134 174 187
-1.251958 1.731980 -6.343489 136 176 189
-1.245981 1.732843 -6.346650 137 177 190
-1.239668 1.733247 -6.348129 137 177 190
-1.233318 1.733602 -6.349430 138 178 191
-1.226952 1.733939 -6.350663 138 178 191
-1.220050 1.733518 -6.349120 140 181 193
-1.213235 1.733216 -6.348016 141 182 194
-1.205676 1.731843 -6.342986 144 184 196
-1.198064 1.730377 -6.337618 145 186 198
-1.190099 1.728383 -6.330315 147 188 200
-1.182916 1.727508 -6.327109 148 189 201
-1.175668 1.726529 -6.323524 148 190 202
-1.168739 1.726009 -6.321620 149 191 203
-1.162657 1.726743 -6.324306 149 190 201
-1.156080 1.726743 -6.324308 149 190 201
-1.149387 1.726571 -6.323677 150 190 201
-1.142697 1.726400 -6.323051 150 190 200
-1.136649 1.727204 -6.325996 149 189 199
-1.129985 1.727075 -6.325522 149 189 199
-1.124099 1.728140 -6.329426 148 188 198
-1.117051 1.727422 -6.326795 149 189 198
-1.110464 1.727414 -6.326763 149 189 198
-1.104158 1.727843 -6.328335 149 188 198
-1.097776 1.728157 -6.329487 149 188 197
-1.090998 1.727850 -6.328362 149 187 196
-1.085029 1.728826 -6.331936 148 186 195
-1.078916 1.729584 -6.334713 147 185 194
-1.072367 1.729650 -6.334953 147 185 194
-1.065585 1.729335 -6.333802 147 185 194
-1.059570 1.730272 -6.337233 146 184 193
-1.052720 1.729846 -6.335673 147 184 193
-1.045971 1.729584 -6.334712 147 184 193
-1.039195 1.729273 -6.333573 147 184 192
0.799072 1.622863 -5.943841 139 171 182
0.804367 1.621074 -5.937287 140 172 183
0.809650 1.619290 -5.930753 142 174 186
0.815060 1.617784 -5.925238 143 175 187
0.820442 1.616245 -5.919602 143 175 188
0.825577 1.614247 -5.912284 144 176 189
0.830693 1.612241 -5.904938 143 177 189
0.835757 1.610164 -5.897330 144 178 190
0.840812 1.608100 -5.889771 144 178 190
0.845878 1.606087 -5.882399 145 179 191
0.850924 1.604067 -5.874997 145 180 192
0.856045 1.602215 -5.868214 146 181 193
0.861157 1.600372 -5.861464 144 180 194
0.866288 1.598589 -5.854936 144 180 194
2.009533 1.550339 -5.678216 134 153 151
2.015349 1.550269 -5.677961 133 152 151
2.021974 1.550821 -5.679982 131 150 148
2.028923 1.551617 -5.682897 129 148 147
2.035709 1.552284 -5.685342 127 145 145
2.042599 1.553027 -5.688061 125 144 144
2.048649 1.553128 -5.688432 123 143 142
2.057005 1.554972 -5.695186 120 139 139
2.066717 1.557827 -5.705644 115 133 134
2.077247 1.561282 -5.718295 110 129 130
2.085817 1.563247 -5.725492 105 125 126
2.093073 1.564219 -5.729053 100 120 121
2.098770 1.564024 -5.728338 97 117 118
2.103648 1.563222 -5.725399 93 113 114
2.108253 1.562221 -5.721735 91 111 112
2.112768 1.561160 -5.717849 92 111 112
2.117449 1.560226 -5.714430 92 111 112
2.122434 1.559522 -5.711851 92 111 113
2.126976 1.558498 -5.708097 93 112 114
2.130963 1.557072 -5.702878 94 113 114
2.134497 1.555325 -5.696478 94 112 114
2.274175 1.521916 -5.574117 150 165 160
2.279496 1.521598 -5.572950 151 166 161
2.283418 1.520350 -5.568378 152 167 160
2.287064 1.518925 -5.563159 152 168 160
2.291162 1.517806 -5.559063 154 170 160
2.294928 1.516474 -5.554183 155 171 161
2.300558 1.516377 -5.553829 159 173 162
2.304340 1.515065 -5.549025 153 167 156
2.304889 1.511640 -5.536480 135 148 134
2.308977 1.510548 -5.532478 128 140 126
2.313035 1.509440 -5.528422 133 146 130
2.317483 1.508593 -5.525318 143 156 139
2.322795 1.508310 -5.524283 149 161 144
2.325736 1.506493 -5.517629 152 163 146
2.330429 1.505817 -5.515153 154 165 147
2.335093 1.505126 -5.512621 155 165 146
2.338953 1.503921 -5.508208 155 165 146
2.342823 1.502729 -5.503841 156 165 146
2.347010 1.501745 -5.500238 155 164 145
2.351531 1.500979 -5.497432 156 165 144
2.356370 1.500420 -5.495384 157 166 145
2.359884 1.499021 -5.490260 148 157 136
2.361120 1.496186 -5.479877 137 146 125
2.366153 1.495764 -5.478332 129 139 117
2.370823 1.495116 -5.475957 134 143 121
2.374318 1.493731 -5.470886 154 164 140
2.376181 1.491329 -5.462087 166 176 152
2.379416 1.489797 -5.456478 168 178 154
2.383066 1.488532 -5.451846 167 177 153
2.389242 1.488847 -5.452999 166 176 152
2.393353 1.487877 -5.449446 166 176 152
2.396883 1.486551 -5.444589 166 176 152
2.400731 1.485428 -5.440475 166 176 153
2.405198 1.484692 -5.437780 166 176 153
2.410729 1.484615 -5.437498 167 176 155
2.414409 1.483401 -5.433053 157 166 145
2.414473 1.479977 -5.420510 134 146 124
2.419329 1.479499 -5.418759 129 141 119
2.424500 1.479215 -5.417719 131 142 120
2.428938 1.478486 -5.415051 141 152 130
2.432906 1.477476 -5.411349 156 165 145
2.436362 1.476159 -5.406527 159 168 149
2.440772 1.475425 -5.403841 156 166 148
2.446007 1.475193 -5.402989 155 166 149
2.451357 1.475031 -5.402396 155 166 149
2.455724 1.474279 -5.399642 154 165 149
2.460044 1.473503 -5.396799 153 164 148
2.464498 1.472810 -5.394260 154 165 148
2.469380 1.472375 -5.392669 151 162 146
2.474827 1.472279 -5.392317 153 164 148
2.477027 1.470256 -5.384906 138 149 133
2.478297 1.467691 -5.375511 122 134 119
2.482755 1.467021 -5.373060 120 132 118
2.487127 1.466304 -5.370432 124 136 122
-2.503664 1.505954 -5.536747 151 190 189
-2.499342 1.506821 -5.539933 152 191 190
-2.495050 1.507709 -5.543200 153 191 192
-2.490664 1.508545 -5.546272 154 192 193
-2.486331 1.509417 -5.549476 154 192 193
-2.481954 1.510265 -5.552597 154 192 193
-2.477568 1.511113 -5.555712 155 193 194
-2.473173 1.511959 -5.558823 155 193 194
-2.468759 1.512797 -5.561904 155 193 194
-2.464370 1.513654 -5.565056 156 194 195
-2.459928 1.514483 -5.568104 156 194 195
-2.455476 1.515310 -5.571143 157 195 196
-2.451054 1.516159 -5.574264 158 196 197
-2.446598 1.516991 -5.577324 158 196 197
-2.442136 1.517823 -5.580382 159 197 198
-2.437711 1.518683 -5.583543 159 197 198
-2.433259 1.519529 -5.586655 159 197 198
-2.428854 1.520409 -5.589890 160 198 199
-2.424390 1.521256 -5.593005 162 200 200
-2.419934 1.522112 -5.596152 162 199 200
-2.415500 1.522987 -5.599367 162 200 201
-2.410975 1.523808 -5.602387 163 201 202
-2.406521 1.524678 -5.605585 165 202 203
-2.402071 1.525555 -5.608808 165 203 204
-2.397584 1.526412 -5.611960 166 203 204
-2.392987 1.527203 -5.614870 166 204 205
-2.388530 1.528088 -5.618124 167 204 205
-2.384080 1.528982 -5.621411 168 205 207
-2.379594 1.529857 -5.624627 169 207 209
-2.375076 1.530715 -5.627782 169 207 210
-2.370659 1.531644 -5.631195 170 208 210
-2.366236 1.532573 -5.634611 170 208 210
-2.361763 1.533473 -5.637923 171 210 212
-2.357373 1.534433 -5.641452 172 211 213
-2.352895 1.535340 -5.644784 172 212 213
-2.348471 1.536286 -5.648265 174 213 214
-2.344008 1.537213 -5.651670 174 213 216
-2.339579 1.538165 -5.655173 176 214 218
-2.335166 1.539134 -5.658733 176 215 219
-2.330702 1.540073 -5.662188 177 216 220
-2.326260 1.541032 -5.665712 178 217 220
-2.321758 1.541956 -5.669109 179 219 222
-2.317263 1.542889 -5.672541 181 220 225
-2.312766 1.543825 -5.675982 182 221 227
-2.308295 1.544785 -5.679510 183 222 228
-2.303815 1.545742 -5.683030 184 223 229
-2.299248 1.546646 -5.686353 185 225 230
-2.294687 1.547559 -5.689709 187 226 231
-2.290205 1.548530 -5.693278 187 226 232
-2.285610 1.549430 -5.696587 188 227 234
-2.281030 1.550343 -5.699946 190 229 236
-2.276423 1.551244 -5.703259 191 231 238
-2.271896 1.552204 -5.706788 192 232 239
-2.267295 1.553118 -5.710148 193 234 240
-2.262702 1.554043 -5.713550 194 235 241
-2.258127 1.554985 -5.717012 195 236 242
-2.253368 1.555805 -5.720027 197 238 244
-2.248710 1.556699 -5.723313 199 240 246
-2.244050 1.557596 -5.726611 201 242 248
-2.239444 1.558536 -5.730068 202 243 249
-2.234800 1.559454 -5.733442 202 243 249
-2.230000 1.560269 -5.736437 203 245 250
-2.225274 1.561139 -5.739635 204 248 251
-2.220548 1.562014 -5.742853 205 249 252
-2.215858 1.562919 -5.746181 206 250 253
-2.211072 1.563761 -5.749278 207 251 254
-2.206291 1.564611 -5.752402 210 251 253
-2.201529 1.565480 -5.755596 211 252 254
-2.196760 1.566348 -5.758787 211 253 255
-2.191926 1.567174 -5.761825 212 254 255
-2.187161 1.568054 -5.765062 214 255 255
-2.182460 1.568986 -5.768487 215 255 255
-2.177774 1.569933 -5.771969 214 255 255
-2.173204 1.570969 -5.775778 214 254 254
-2.168380 1.571827 -5.778932 217 254 255
-2.163553 1.572687 -5.782095 219 255 255
-2.158685 1.573523 -5.785167 221 255 255
-2.153903 1.574426 -5.788487 222 255 255
-2.149096 1.575315 -5.791757 224 255 255
-2.144335 1.576244 -5.795173 224 254 255
-2.139495 1.577120 -5.798391 226 254 255
-2.134531 1.577908 -5.801291 229 255 255
-2.129612 1.578735 -5.804329 230 255 255
-2.124720 1.579586 -5.807460 232 255 255
-2.119750 1.580384 -5.810393 232 255 255
-2.114778 1.581185 -5.813340 233 255 255
-2.109715 1.581923 -5.816050 234 255 255
-2.104646 1.582661 -5.818762 237 255 255
-2.099709 1.583502 -5.821855 238 255 255
-2.094724 1.584311 -5.824829 239 255 255
-2.089697 1.585093 -5.827707 240 255 255
-2.084703 1.585906 -5.830693 241 255 255
-2.079778 1.586775 -5.833889 241 255 255
-2.074822 1.587626 -5.837017 242 255 255
-2.069866 1.588482 -5.840164 243 255 255
-2.064872 1.589313 -5.843222 243 255 255
-2.059816 1.590102 -5.846120 244 255 255
-2.054806 1.590931 -5.849168 244 255 255
-2.049817 1.591781 -5.852296 244 255 255
-2.044814 1.592626 -5.855400 245 255 255
-2.039817 1.593480 -5.858540 246 255 255
-2.034849 1.594361 -5.861782 247 255 255
-2.029905 1.595268 -5.865114 247 255 255
-2.024923 1.596149 -5.868353 247 255 255
-2.020014 1.597093 -5.871826 247 255 255
-2.015063 1.598011 -5.875200 247 255 255
-2.010176 1.598984 -5.878778 247 255 255
-2.005170 1.599869 -5.882031 247 255 255
-2.000234 1.600815 -5.885509 248 255 255
-1.995243 1.601723 -5.888846 248 255 255
-1.990259 1.602641 -5.892223 248 255 255
-1.985254 1.603549 -5.895562 247 255 255
-1.980237 1.604453 -5.898883 248 255 255
-1.975202 1.605347 -5.902171 248 255 255
-1.970167 1.606247 -5.905478 248 255 255
-1.965105 1.607130 -5.908727 247 255 255
-1.960045 1.608021 -5.912002 247 255 255
-1.954965 1.608902 -5.915239 247 255 255
-1.949874 1.609778 -5.918460 248 255 255
-1.944723 1.610610 -5.921519 247 255 255
-1.939651 1.611513 -5.924839 248 255 255
-1.934535 1.612385 -5.928047 247 255 255
-1.929454 1.613292 -5.931383 248 255 255
-1.924316 1.614157 -5.934563 248 255 255
-1.919293 1.615125 -5.938120 247 255 255
-1.914242 1.616075 -5.941615 247 255 255
-1.909213 1.617050 -5.945198 247 255 255
-1.904258 1.618094 -5.949035 246 255 255
-1.899255 1.619104 -5.952750 246 255 255
-1.894261 1.620128 -5.956515 246 255 255
-1.889273 1.621164 -5.960324 246 255 255
-1.884275 1.622198 -5.964126 245 255 255
-1.879222 1.623192 -5.967780 245 255 255
-1.874129 1.624158 -5.971330 245 255 255
-1.869008 1.625106 -5.974815 245 255 255
-1.863874 1.626048 -5.978279 244 255 255
-1.858690 1.626953 -5.981607 244 255 255
-1.853573 1.627924 -5.985176 243 255 255
-1.848376 1.628830 -5.988508 242 255 255
-1.843183 1.629745 -5.991873 239 255 255
-1.838013 1.630688 -5.995340 239 255 255
-1.832718 1.631526 -5.998420 239 255 255
-1.827486 1.632425 -6.001726 239 255 255
-1.822214 1.633295 -6.004923 238 255 255
-1.816895 1.634129 -6.007990 238 255 255
-1.811604 1.634993 -6.011168 236 255 255
-1.806279 1.635833 -6.014254 235 255 255
-1.800974 1.636697 -6.017432 234 255 255
-1.795668 1.637566 -6.020626 233 255 255
-1.790298 1.638382 -6.023628 232 255 255
-1.784978 1.639250 -6.026818 231 255 255
-1.779656 1.640123 -6.030026 230 255 255
-1.774406 1.641068 -6.033502 228 254 255
-1.769151 1.642016 -6.036986 225 254 255
-1.763880 1.642955 -6.040438 224 255 255
-1.758657 1.643945 -6.044078 223 255 255
-1.753443 1.644951 -6.047778 222 255 255
-1.748177 1.645916 -6.051326 221 255 255
-1.742979 1.646951 -6.055131 220 255 255
-1.737800 1.648012 -6.059033 219 255 255
-1.732593 1.649055 -6.062866 218 255 255
-1.727396 1.650114 -6.066761 216 255 255
-1.722116 1.651102 -6.070391 214 255 255
-1.716863 1.652123 -6.074147 212 254 255
-1.711643 1.653183 -6.078044 211 254 255
-1.706305 1.654137 -6.081552 210 253 255
-1.701087 1.655215 -6.085514 209 254 255
-1.695759 1.656194 -6.089112 209 253 255
-1.690527 1.657273 -6.093080 209 253 255
-1.685251 1.658318 -6.096921 208 253 255
-1.679915 1.659311 -6.100573 207 252 255
-1.674571 1.660304 -6.104224 206 251 255
-1.669204 1.661281 -6.107815 205 250 255
-1.663850 1.662279 -6.111484 204 249 254
-1.658486 1.663274 -6.115144 204 248 255
-1.575192 1.676164 -6.162535 187 231 244
-1.569575 1.677011 -6.165650 186 230 243
-1.563863 1.677763 -6.168414 184 228 241
-1.558182 1.678554 -6.171323 183 227 240
-1.552437 1.679284 -6.174006 182 226 239
-1.546751 1.680083 -6.176942 181 225 239
-1.478611 1.690323 -6.214590 168 214 229
-1.472970 1.691267 -6.218061 167 213 229
-1.467284 1.692169 -6.221377 166 212 228
-1.461382 1.692828 -6.223802 164 210 226
-1.455723 1.693776 -6.227286 164 210 226
-1.450057 1.694724 -6.230771 165 209 226
-1.380330 1.704655 -6.267283 154 197 213
-1.374429 1.705422 -6.270104 153 196 212
-1.368824 1.706564 -6.274303 153 196 212
-1.363205 1.707700 -6.278480 153 196 212
-1.357428 1.708649 -6.281968 152 194 210
-1.352032 1.710088 -6.287259 151 193 207
-1.346567 1.711454 -6.292282 150 191 205
-1.341167 1.712916 -6.297657 148 190 204
-1.335656 1.714249 -6.302558 147 188 202
-1.330309 1.715808 -6.308289 146 186 201
-1.324637 1.716961 -6.312528 144 184 198
-1.319242 1.718486 -6.318135 142 180 196
-1.313512 1.719588 -6.322186 140 179 194
-1.307586 1.720443 -6.325331 137 176 190
-1.301381 1.720937 -6.327147 135 174 188
-1.295277 1.721572 -6.329482 133 172 187
-1.289087 1.722097 -6.331410 132 170 185
-1.282821 1.722526 -6.332987 130 168 183
-1.276679 1.723127 -6.335196 127 165 180
-1.270324 1.723445 -6.336366 124 162 177
-1.264224 1.724113 -6.338824 120 158 173
-1.258036 1.724669 -6.340867 117 155 170
-1.251797 1.725161 -6.342674 116 154 169
-1.245628 1.725754 -6.344855 116 155 169
-1.239458 1.726352 -6.347053 117 156 170
-1.233469 1.727210 -6.350207 119 157 172
-1.227818 1.728553 -6.355148 121 159 173
-1.222739 1.730720 -6.363113 123 162 176
-1.217460 1.732625 -6.370119 125 164 178
-1.212170 1.734538 -6.377151 127 167 179
-1.206320 1.735663 -6.381289 128 168 180
-1.200391 1.736689 -6.385060 130 170 182
-1.194257 1.737427 -6.387772 132 172 184
-1.187796 1.737694 -6.388754 134 175 187
-1.181107 1.737629 -6.388515 136 177 189
-1.173456 1.736142 -6.383047 139 180 192
-1.165592 1.734318 -6.376342 142 182 194
-1.158225 1.733218 -6.372299 143 183 194
-1.150033 1.730865 -6.363646 145 185 195
-1.143556 1.731080 -6.364437 145 185 195
-1.136655 1.730651 -6.362862 145 184 195
-1.129815 1.730312 -6.361615 145 184 195
-1.123132 1.730211 -6.361241 145 184 195
-1.117123 1.731152 -6.364702 145 184 194
-1.110255 1.730765 -6.363278 145 184 193
-1.103546 1.730623 -6.362756 145 184 193
-1.096749 1.730341 -6.361720 145 183 192
-1.089928 1.730016 -6.360525 145 183 192
-1.083533 1.730370 -6.361825 144 182 191
-1.076819 1.730213 -6.361249 144 182 191
-1.070109 1.730062 -6.360695 144 182 190
-1.063241 1.729652 -6.359186 144 182 190
-1.056924 1.730139 -6.360978 144 181 190
-1.050166 1.729905 -6.360117 144 181 189
-1.043780 1.730286 -6.361517 143 180 188
-1.036629 1.729394 -6.358237 144 181 188
-1.030277 1.729833 -6.359854 143 180 187
-1.023410 1.729406 -6.358284 143 180 187
-1.017568 1.730718 -6.363107 142 178 185
-1.011221 1.731183 -6.364815 140 177 184
-1.006793 1.734961 -6.378707 137 173 181
-1.001011 1.736440 -6.384143 135 172 179
-0.994265 1.736256 -6.383467 137 172 178
-0.987542 1.736109 -6.382925 137 172 178
-0.980876 1.736061 -6.382749 138 173 178
-0.973462 1.734681 -6.377675 139 174 179
-0.967151 1.735258 -6.379798 139 174 179
-0.960785 1.735747 -6.381594 139 173 179
-0.954215 1.735869 -6.382045 139 174 179
-0.053238 1.796711 -6.605733 109 140 143
-0.046403 1.798088 -6.610798 109 139 142
-0.039518 1.797711 -6.609409 109 139 143
-0.032617 1.796215 -6.603911 110 140 144
-0.025743 1.795907 -6.602779 109 140 143
-0.018886 1.796862 -6.606289 108 139 142
-0.012023 1.798223 -6.611292 107 138 141
-0.005150 1.799332 -6.615371 106 137 140
0.001730 1.799118 -6.614584 106 137 140
0.008618 1.800639 -6.620174 106 136 140
0.015509 1.801316 -6.622666 105 135 138
0.022391 1.800818 -6.620833 104 135 138
0.029282 1.801056 -6.621708 105 135 138
0.036174 1.801281 -6.622537 105 135 138
0.477592 1.728558 -6.355163 58 79 87
0.483766 1.727001 -6.349441 59 79 88
0.489819 1.725058 -6.342297 60 78 88
0.495822 1.722995 -6.334713 60 79 89
0.501947 1.721404 -6.328862 61 79 91
0.711042 1.656444 -6.090032 107 135 147
0.716986 1.655544 -6.086722 110 138 150
0.721916 1.652337 -6.074932 116 144 156
0.726994 1.649522 -6.064582 119 147 159
0.732037 1.646677 -6.054125 119 149 160
0.737493 1.644801 -6.047225 117 147 158
0.742842 1.642719 -6.039572 118 148 159
0.747992 1.640237 -6.030447 120 150 161
0.753057 1.637613 -6.020798 122 152 163
0.757930 1.634615 -6.009777 124 154 165
0.762913 1.631904 -5.999808 126 156 167
0.767833 1.629102 -5.989507 129 159 170
0.772789 1.626421 -5.979652 134 164 175
0.778038 1.624394 -5.972200 138 168 179
0.783395 1.622625 -5.965694 137 168 179
0.788697 1.620768 -5.958867 137 169 180
0.794081 1.619110 -5.952772 138 170 181
0.799375 1.617294 -5.946094 140 172 183
0.804579 1.615325 -5.938855 142 174 186
0.809742 1.613304 -5.931427 143 175 188
0.814883 1.611271 -5.923952 144 176 189
0.820063 1.609344 -5.916868 144 176 189
0.825239 1.607439 -5.909861 145 177 190
0.830403 1.605538 -5.902874 144 178 190
0.835594 1.603717 -5.896178 144 178 190
0.840723 1.601805 -5.889148 145 179 191
0.845874 1.599962 -5.882372 145 179 191
0.851024 1.598143 -5.875683 144 180 192
0.856137 1.596282 -5.868845 145 181 193
0.861271 1.594486 -5.862238 145 181 195
0.866296 1.592515 -5.854992 146 182 196
1.202809 1.503149 -5.526433 164 189 186
1.208246 1.502762 -5.525011 164 189 185
1.213952 1.502711 -5.524824 164 189 185
1.219794 1.502828 -5.525255 164 189 185
1.225501 1.502780 -5.525076 165 190 186
1.231235 1.502765 -5.525019 164 189 185
1.983931 1.547496 -5.689479 139 158 156
1.990938 1.548343 -5.692593 136 155 153
1.996937 1.548404 -5.692817 134 154 152
2.002937 1.548465 -5.693039 133 153 151
2.010229 1.549522 -5.696925 132 151 151
2.016063 1.549451 -5.696665 131 149 149
2.023086 1.550292 -5.699759 129 147 147
2.031960 1.552543 -5.708034 124 143 143
2.040158 1.554265 -5.714365 120 140 139
2.050550 1.557644 -5.726789 114 134 133
2.060259 1.560487 -5.737239 110 130 131
2.066124 1.560410 -5.736955 109 129 130
2.075242 1.562782 -5.745677 105 123 125
2.082256 1.563562 -5.748544 100 118 120
2.088189 1.563527 -5.748416 96 115 117
2.093552 1.563067 -5.746727 94 114 116
2.098259 1.562122 -5.743249 94 113 116
2.102647 1.560944 -5.738921 95 113 116
2.107144 1.559854 -5.734914 95 113 115
2.111361 1.558564 -5.730170 95 113 115
2.115692 1.557365 -5.725762 95 113 115
2.119644 1.555894 -5.720355 95 113 115
2.123487 1.554352 -5.714684 95 113 115
2.126274 1.552048 -5.706213 95 113 115
2.130347 1.550692 -5.701227 95 113 115
2.134260 1.549228 -5.695846 94 112 113
2.274804 1.516538 -5.575657 155 170 163
2.280357 1.516374 -5.575055 155 170 163
2.284323 1.515159 -5.570587 155 171 161
2.287799 1.513624 -5.564947 155 171 161
2.291694 1.512375 -5.560353 157 172 161
2.295480 1.511060 -5.555519 158 173 162
2.301123 1.510971 -5.555192 161 177 164
2.304656 1.509501 -5.549786 155 170 157
2.305453 1.506250 -5.537836 135 149 135
2.310028 1.505478 -5.534996 130 144 128
2.314176 1.504432 -5.531150 137 150 134
2.318696 1.503632 -5.528210 146 159 142
2.323316 1.502901 -5.525523 152 164 147
2.326734 1.501398 -5.519995 155 167 149
2.331207 1.500582 -5.516994 157 168 150
2.336027 1.499992 -5.514827 157 168 150
2.339850 1.498767 -5.510322 158 169 150
2.343582 1.497489 -5.505624 159 169 149
2.347847 1.496558 -5.502201 160 170 149
2.352103 1.495625 -5.498771 161 170 148
2.357058 1.495140 -5.496988 162 171 149
2.361296 1.494204 -5.493546 155 164 142
2.362162 1.491143 -5.482293 142 152 129
2.366609 1.490353 -5.479388 133 142 118
2.371580 1.489895 -5.477705 136 146 122
2.374842 1.488369 -5.472095 156 165 141
2.377172 1.486267 -5.464367 169 178 154
2.380103 1.484551 -5.458055 172 181 157
2.383677 1.483242 -5.453244 171 180 156
2.389664 1.483437 -5.453961 170 179 155
2.394172 1.482716 -5.451309 170 179 155
2.397552 1.481301 -5.446108 170 179 155
2.401408 1.480186 -5.442008 171 179 155
2.405949 1.479498 -5.439478 170 179 155
2.411119 1.479199 -5.438378 169 178 155
2.415013 1.478120 -5.434413 160 169 146
2.414907 1.474604 -5.421484 136 147 123
2.419755 1.474122 -5.419713 131 142 118
2.425087 1.473936 -5.419031 132 142 118
2.429466 1.473174 -5.416228 143 153 130
2.433660 1.472303 -5.413026 157 167 145
2.437034 1.470941 -5.408019 161 170 149
2.441478 1.470230 -5.405406 159 169 148
2.446479 1.469857 -5.404031 158 167 147
2.451909 1.469742 -5.403611 157 167 147
2.456161 1.468925 -5.400604 157 166 147
2.460544 1.468188 -5.397896 157 166 147
2.464706 1.467323 -5.394716 156 165 146
2.469727 1.466972 -5.393427 155 164 145
2.475140 1.466856 -5.392999 154 165 148
2.477777 1.465099 -5.386538 141 152 135
2.478972 1.462498 -5.376976 127 138 122
2.483095 1.461633 -5.373797 123 134 118
2.487634 1.461016 -5.371527 125 136 120
-2.503232 1.499937 -5.535793 152 191 190
-2.498911 1.500800 -5.538977 153 192 191
-2.494618 1.501684 -5.542239 154 192 193
-2.490283 1.502546 -5.545424 155 193 194
-2.485953 1.503416 -5.548632 155 193 194
-2.481544 1.504242 -5.551680 155 193 194
-2.477211 1.505118 -5.554913 155 193 194
-2.472818 1.505961 -5.558025 156 194 195
-2.468422 1.506806 -5.561144 157 195 196
-2.464005 1.507643 -5.564233 156 194 195
-2.459569 1.508471 -5.567290 158 196 197
-2.455130 1.509302 -5.570357 159 197 198
-2.450674 1.510127 -5.573400 160 198 199
-2.446245 1.510972 -5.576519 159 197 198
-2.441821 1.511824 -5.579664 159 197 198
-2.437343 1.512647 -5.582700 161 199 200
-2.432971 1.513539 -5.585994 161 199 200
-2.428533 1.514395 -5.589152 162 200 201
-2.424116 1.515268 -5.592373 163 201 202
-2.419646 1.516111 -5.595486 163 201 202
-2.415169 1.516955 -5.598602 163 201 202
-2.410694 1.517803 -5.601732 163 201 202
-2.406223 1.518659 -5.604890 165 203 204
-2.401741 1.519512 -5.608037 166 204 205
-2.397266 1.520373 -5.611217 166 204 205
-2.392761 1.521219 -5.614340 167 205 206
-2.388259 1.522072 -5.617486 167 205 207
-2.383802 1.522957 -5.620753 168 206 209
-2.379368 1.523862 -5.624093 169 208 210
-2.374889 1.524742 -5.627340 169 208 211
-2.370358 1.525593 -5.630481 170 209 212
-2.365930 1.526514 -5.633882 171 210 213
-2.361453 1.527409 -5.637183 173 213 215
-2.357043 1.528351 -5.640661 174 214 216
-2.352605 1.529280 -5.644090 174 214 216
-2.348118 1.530182 -5.647418 176 216 218
-2.343757 1.531170 -5.651063 176 215 219
-2.339257 1.532073 -5.654396 176 215 220
-2.334833 1.533029 -5.657926 177 216 221
-2.330333 1.533941 -5.661291 178 217 222
-2.325800 1.534836 -5.664593 179 218 223
-2.321393 1.535818 -5.668218 180 220 225
-2.316871 1.536729 -5.671580 182 222 227
-2.312305 1.537615 -5.674851 184 223 230
-2.307871 1.538594 -5.678465 185 225 232
-2.303295 1.539484 -5.681747 186 227 233
-2.298773 1.540413 -5.685178 187 228 234
-2.294167 1.541292 -5.688420 188 229 235
-2.289558 1.542172 -5.691670 189 230 236
-2.285029 1.543112 -5.695138 190 231 237
-2.280344 1.543951 -5.698233 192 233 239
-2.275790 1.544882 -5.701672 192 235 241
-2.271183 1.545783 -5.704997 193 236 242
-2.266628 1.546724 -5.708468 194 237 243
-2.262034 1.547643 -5.711862 194 237 243
-2.257345 1.548502 -5.715031 196 239 245
-2.252743 1.549425 -5.718439 197 240 246
-2.248037 1.550282 -5.721599 199 242 248
-2.243319 1.551135 -5.724747 201 244 250
-2.238740 1.552088 -5.728267 202 244 250
-2.234167 1.553051 -5.731820 203 244 250
-2.229371 1.553863 -5.734817 205 246 252
-2.224484 1.554617 -5.737599 208 249 253
-2.219819 1.555529 -5.740967 209 250 254
-2.215128 1.556429 -5.744287 211 251 253
-2.210311 1.557245 -5.747299 211 252 254
-2.205614 1.558150 -5.750638 212 252 252
-2.200872 1.559028 -5.753879 212 252 253
-2.196038 1.559845 -5.756896 217 253 255
-2.191333 1.560758 -5.760266 217 253 255
-2.186490 1.561579 -5.763294 219 254 255
-2.181818 1.562526 -5.766788 218 254 254
-2.177005 1.563377 -5.769931 220 254 255
-2.172335 1.564336 -5.773468 221 254 255
-2.167544 1.565213 -5.776704 223 255 255
-2.162724 1.566074 -5.779882 224 255 255
-2.157896 1.566933 -5.783053 227 255 255
-2.153126 1.567839 -5.786397 228 255 255
-2.148326 1.568729 -5.789683 229 255 255
-2.143513 1.569615 -5.792951 229 255 255
-2.138625 1.570450 -5.796033 231 255 255
-2.133759 1.571306 -5.799192 233 255 255
-2.128822 1.572115 -5.802177 235 255 255
-1.790072 1.631912 -6.022869 239 255 255
-1.784805 1.632824 -6.026236 238 255 255
-1.779513 1.633720 -6.029542 237 255 255
-1.774293 1.634688 -6.033118 234 254 255
-1.769031 1.635625 -6.036574 232 255 255
-1.763776 1.636575 -6.040080 231 255 255
-1.758547 1.637556 -6.043700 230 255 255
-1.753343 1.638567 -6.047434 229 255 255
-1.748092 1.639542 -6.051030 228 255 255
-1.742911 1.640589 -6.054895 227 255 255
-1.737738 1.641652 -6.058820 226 255 255
